# .PCD v0.7 - Point Cloud Data file format
VERSION 0.7
FIELDS x y z intensity ring time
SIZE 4 4 4 4 2 4
TYPE F F F F U F
COUNT 1 1 1 1 1 1
WIDTH 955
HEIGHT 1
VIEWPOINT 0 0 0 1 0 0 0
POINTS 955
DATA ascii
11.131005 -6.3490124 -0.67157507 7 6 -0.017829172
13.552397 -7.7332854 3.602366 30 14 -0.017826868
13.670929 -7.8040867 -0.27477068 12 7 -0.017824564
13.52118 -7.7217312 4.172163 35 15 -0.01782226
3.1985602 -1.8318326 -0.98765355 13 0 -0.017801525
13.592721 -7.787775 0.27344432 18 8 -0.017799221
3.6147406 -2.0718575 -0.9618907 15 1 -0.017796917
13.568246 -7.780045 0.81968582 24 9 -0.017794613
4.1794896 -2.3965232 -0.93649065 11 2 -0.017792309
13.540723 -7.7674041 1.3657305 18 10 -0.017790005
4.9463158 -2.8385167 -0.90325272 19 3 -0.017787701
13.521136 -7.7624426 1.9143238 31 11 -0.017785396
6.0524006 -3.4760687 -0.85698533 9 4 -0.017783092
13.501935 -7.7576857 2.466346 25 12 -0.017780788
7.7601218 -4.4586635 -0.78300714 17 5 -0.017778484
13.45007 -7.7310104 3.0155456 27 13 -0.01777618
7.6390133 -4.3926277 -0.46181253 6 6 -0.017773876
13.456063 -7.740705 3.5839202 29 14 -0.017771572
7.8097157 -4.4944139 -0.15728109 10 7 -0.017769268
13.440571 -7.7380376 4.1555991 33 15 -0.017766964
3.1871271 -1.8400887 -0.98610061 15 0 -0.017746229
13.503116 -7.79917 0.27218774 18 8 -0.017743925
3.6142361 -2.0883627 -0.96369034 15 1 -0.017741621
13.471839 -7.7873774 0.81549895 18 9 -0.017739316
4.1710987 -2.4110975 -0.93649065 15 2 -0.017737012
13.446261 -7.7757235 1.3589324 22 10 -0.017734708
4.9363775 -2.8557653 -0.90325272 17 3 -0.017732404
13.432107 -7.7737966 1.9055492 35 11 -0.0177301
6.0402303 -3.4971747 -0.85698533 9 4 -0.017727796
13.40298 -7.7631869 2.4532056 25 12 -0.017725492
7.8134732 -4.5256691 -0.78997964 24 5 -0.017723188
13.363549 -7.7434621 3.0021889 27 13 -0.017720884
11.096777 -6.4325762 -0.67220312 7 6 -0.01771858
13.348043 -7.7407026 3.5623248 29 14 -0.017716276
7.9340844 -4.6029291 -0.16010839 6 7 -0.017713971
13.333278 -7.7383609 4.1307521 31 15 -0.017711669
3.1806846 -1.8512026 -0.98610061 16 0 -0.017690932
8.0167065 -4.6677079 0.16192344 7 8 -0.017688628
3.6136601 -2.1048894 -0.96548992 16 1 -0.017686324
13.38036 -7.7938089 0.81152141 18 9 -0.01768402
4.1592641 -2.423666 -0.93572736 12 2 -0.017681716
13.348465 -7.7814722 1.3517855 18 10 -0.017679412
4.9314981 -2.8759646 -0.90419132 19 3 -0.017677108
13.343163 -7.7846241 1.8967746 30 11 -0.017674804
6.0314145 -3.5202386 -0.85747278 9 4 -0.0176725
13.296978 -7.7607894 2.4385006 25 12 -0.017670196
7.7494521 -4.5247855 -0.78509891 22 5 -0.017667891
13.280495 -7.7573857 2.9895957 27 13 -0.017665589
7.8012967 -4.5587096 -0.47353578 10 6 -0.017663285
13.263741 -7.7538109 3.5470283 29 14 -0.017660981
13.367145 -7.8142586 -0.27026796 12 7 -0.017658677
13.247508 -7.7474227 4.1121173 29 15 -0.017656373
3.170871 -1.860339 -0.98506534 15 0 -0.017635636
13.310009 -7.8089361 0.26936045 23 8 -0.017633332
3.6133826 -2.1208067 -0.96728951 15 1 -0.017631028
13.287624 -7.8020387 0.80754387 24 9 -0.017628724
4.1457 -2.4351864 -0.93458253 11 2 -0.01762642
13.240485 -7.7805772 1.3435929 22 10 -0.017624116
4.9202309 -2.8913014 -0.90387845 17 3 -0.017621811
13.25738 -7.7936172 1.8882437 30 11 -0.017619509
6.0197077 -3.5402205 -0.85747278 9 4 -0.017617205
13.21192 -7.7731009 2.4278631 25 12 -0.017614901
7.8108778 -4.5972867 -0.79294294 19 5 -0.017612597
13.166717 -7.749599 2.9697514 27 13 -0.017610293
11.052735 -6.5079594 -0.67220312 10 6 -0.017607989
13.17415 -7.7601681 3.5299318 29 14 -0.017605685
13.281211 -7.826354 -0.26908121 16 7 -0.017603381
13.137175 -7.7445655 4.0862355 33 15 -0.017601077
3.1646843 -1.8708436 -0.98506534 16 0 -0.01758034
13.205215 -7.8095417 0.26778972 23 8 -0.017578036
3.5891855 -2.1234841 -0.96279049 15 1 -0.017575732
13.200152 -7.812768 0.80388033 18 9 -0.017573427
4.1426706 -2.4519203 -0.93572736 11 2 -0.017571125
13.161466 -7.792974 1.3381892 22 10 -0.017568821
4.8965111 -2.9004045 -0.90137547 19 3 -0.017566517
13.142999 -7.7882357 1.8758131 35 11 -0.017564213
6.0141435 -3.5652604 -0.85844773 9 4 -0.017561909
13.126938 -7.7849131 2.4172256 25 12 -0.017559605
7.7630291 -4.6038537 -0.78963101 16 5 -0.017557301
13.075424 -7.7574458 2.9552498 27 13 -0.017554997
11.074606 -6.5730062 -0.67492455 5 6 -0.017552692
13.078281 -7.7653155 3.5114858 28 14 -0.017550388
13.188478 -7.8338585 -0.26775482 16 7 -0.017548084
13.043632 -7.7508998 4.0655298 36 15 -0.01754578
3.164773 -1.8858346 -0.98713589 15 0 -0.017525045
13.116038 -7.818728 0.26653314 17 8 -0.017522741
3.5834248 -2.1369977 -0.96324039 17 1 -0.017520437
13.102477 -7.816844 0.7995888 18 9 -0.017518133
4.1374583 -2.4683781 -0.93649065 9 2 -0.017515829
13.06746 -7.7990456 1.3313911 22 10 -0.017513525
4.8897491 -2.9195044 -0.90200126 17 3 -0.017511221
13.054379 -7.79742 1.8670385 30 11 -0.017508917
5.9948459 -3.582159 -0.85747278 9 4 -0.017506612
13.035254 -7.7921715 2.4053366 25 12 -0.017504308
7.7178392 -4.6135449 -0.7866677 14 5 -0.017502004
12.984237 -7.764751 2.9407485 27 13 -0.0174997
10.989892 -6.5747089 -0.67115635 10 6 -0.017497396
12.990899 -7.7748933 3.4952896 31 14 -0.017495092
13.09071 -7.8377314 -0.26632375 20 7 -0.017492788
12.958489 -7.7616405 4.0474124 36 15 -0.017490484
3.1614828 -1.8988596 -0.9881711 15 0 -0.017469749
13.030387 -7.8294463 0.26534638 23 8 -0.017467445
3.579284 -2.1515012 -0.96414024 19 1 -0.017465141
12.996377 -7.8151865 0.79477394 18 9 -0.017462837
4.1304994 -2.4838171 -0.93687224 9 2 -0.017460532
12.978694 -7.8076382 1.3251159 22 10 -0.017458228
4.8862987 -2.9406292 -0.90325272 17 3 -0.017455924
12.964157 -7.8050566 1.8580201 35 11 -0.01745362
5.9823055 -3.6030633 -0.85747278 9 4 -0.017451316
12.931834 -7.7917495 2.3912575 28 12 -0.017449012
7.6914492 -4.6342878 -0.78562188 14 5 -0.017446708
12.896523 -7.773541 2.9270103 27 13 -0.017444404
10.985688 -6.6243763 -0.67230779 10 6 -0.0174421
12.871904 -7.7648292 3.4705448 28 14 -0.017439796
12.998211 -7.8441162 -0.26499733 24 7 -0.017437492
12.868471 -7.7688856 4.0277419 38 15 -0.017435187
3.1449199 -1.903881 -0.98506534 16 0 -0.017414453
12.951665 -7.8438067 0.26429924 23 8 -0.017412148
3.5717521 -2.1639819 -0.96414024 20 1 -0.017409844
12.91436 -7.8273778 0.79142439 18 9 -0.01740754
4.1184459 -2.4961851 -0.93610895 9 2 -0.017405236
12.883214 -7.8115735 1.3181434 22 10 -0.017402932
4.8760042 -2.9576678 -0.90325272 17 3 -0.017400628
12.882526 -7.8173094 1.8502206 35 11 -0.017398324
5.9696918 -3.6239233 -0.85747278 9 4 -0.01739602
12.835333 -7.7948022 2.3784299 24 12 -0.017393716
7.688849 -4.6693811 -0.78701639 14 5 -0.017391412
12.80555 -7.7797751 2.9125087 27 13 -0.017389107
10.960793 -6.6616459 -0.67220312 10 6 -0.017386805
12.7981 -7.7813659 3.4579475 28 14 -0.017384501
12.900703 -7.8468347 -0.26356626 20 7 -0.017382197
12.776912 -7.7745943 4.0075545 31 15 -0.017379893
3.1349568 -1.9128348 -0.98403007 13 0 -0.017359156
12.852517 -7.8452101 0.26283324 22 8 -0.017356852
3.567503 -2.178468 -0.96504009 19 1 -0.017354548
12.825601 -7.8349266 0.78765625 23 9 -0.017352244
4.1046815 -2.5074754 -0.93496412 9 2 -0.01734994
12.791265 -7.817018 1.3115195 18 10 -0.017347636
4.8622794 -2.9726093 -0.90262699 17 3 -0.017345332
12.794196 -7.8249431 1.8414459 30 11 -0.017343028
5.9637785 -3.6488833 -0.85844773 9 4 -0.017340723
12.75413 -7.8065586 2.368418 24 12 -0.017338421
7.6555095 -4.6857901 -0.78527319 14 5 -0.017336117
12.707994 -7.7813683 2.8964806 27 13 -0.017333813
10.956206 -6.7113414 -0.67335445 10 6 -0.017331509
12.704395 -7.7852635 3.4399514 31 14 -0.017329205
12.81868 -7.8583741 -0.26244929 16 7 -0.017326901
12.68547 -7.779758 3.9873664 36 15 -0.017324597
3.1282606 -1.9237664 -0.98403007 15 0 -0.01730386
12.751818 -7.8449707 0.26133233 22 8 -0.017301556
3.5532384 -2.1868217 -0.96324039 19 1 -0.017299252
12.750552 -7.8503289 0.78472537 23 9 -0.017296948
4.1059346 -2.5279639 -0.93725383 9 2 -0.017294645
12.711312 -7.8292289 1.306116 27 10 -0.017292339
4.8451467 -2.985419 -0.90137547 17 3 -0.017290037
12.70428 -7.8310161 1.8324275 35 11 -0.017287733
5.9476261 -3.6675951 -0.85796028 9 4 -0.017285429
12.683092 -7.8240662 2.3602834 28 12 -0.017283125
7.6509762 -4.7198067 -0.78649336 14 5 -0.017280821
12.618938 -7.7875314 2.8823609 27 13 -0.017278517
10.915718 -6.7390523 -0.67230779 10 6 -0.017276213
12.634035 -7.8029385 3.4282541 36 14 -0.017273908
12.743538 -7.8736424 -0.26147196 24 7 -0.017271604
12.605651 -7.7914882 3.9708021 40 15 -0.0172693
3.1284328 -1.9381988 -0.98610061 16 0 -0.017258883
12.669641 -7.8524494 0.26018047 22 8 -0.017256578
3.542655 -2.1965389 -0.96234065 17 1 -0.017254274
12.654534 -7.8461432 0.78032917 23 9 -0.01725197
4.0975289 -2.5415659 -0.93725383 9 2 -0.017249666
12.620947 -7.8314195 1.2994921 22 10 -0.017247362
4.8368983 -3.0025115 -0.9016884 17 3 -0.017245058
12.598981 -7.8238807 1.8209718 34 11 -0.017242754
5.9388032 -3.6893928 -0.85844773 9 4 -0.01724045
12.589653 -7.8211341 2.3474557 24 12 -0.017238146
7.6386676 -4.7472558 -0.78684205 14 5 -0.017235842
12.538025 -7.7951264 2.8697674 27 13 -0.017233539
10.895006 -6.776269 -0.67241246 10 6 -0.017231235
12.533633 -7.7984648 3.4080083 36 14 -0.017228931
12.650824 -7.8713808 -0.26007575 24 7 -0.017226627
12.528628 -7.7983842 3.9542375 38 15 -0.017224323
3.1249254 -1.9511538 -0.98713589 16 0 -0.017203586
12.582469 -7.8562937 0.25892389 27 8 -0.017201282
3.5370045 -2.2093074 -0.96279049 16 1 -0.017198978
12.542379 -7.8373489 0.77509558 23 9 -0.017196674
4.0819736 -2.5516908 -0.93572736 9 2 -0.01719437
12.539477 -7.8416228 1.2939141 22 10 -0.017192066
4.8336148 -3.0227242 -0.90293986 17 3 -0.017189762
12.527528 -7.8371916 1.8143909 34 11 -0.017187459
5.9198055 -3.704854 -0.85747278 9 4 -0.017185155
12.495304 -7.823103 2.3349411 24 12 -0.017182851
7.6321807 -4.7802358 -0.78788787 14 5 -0.017180547
12.458863 -7.8033142 2.8575556 27 13 -0.017178243
10.870783 -6.8112998 -0.67230779 7 6 -0.017175939
12.440004 -7.7975502 3.3895626 39 14 -0.017173635
12.552115 -7.8708749 -0.25860977 24 7 -0.017171331
12.44078 -7.8040853 3.9350848 40 15 -0.017169027
3.1086266 -1.9553343 -0.98403007 15 0 -0.01714829
12.504194 -7.8682165 0.25787675 22 8 -0.017145986
3.5342183 -2.2247546 -0.96414024 17 1 -0.017143682
12.467625 -7.8512826 0.77216476 23 9 -0.017141379
4.0718279 -2.5641673 -0.93534577 9 2 -0.017139075
12.447659 -7.8417439 1.2871159 27 10 -0.017136771
4.8230338 -3.039578 -0.90293986 17 3 -0.017134467
12.444681 -7.8459363 1.8063475 34 11 -0.017132163
5.9202695 -3.7339673 -0.85942268 9 4 -0.017129859
12.407778 -7.8287244 2.3236778 24 12 -0.017127555
7.6087089 -4.8025947 -0.78719068 14 5 -0.017125251
12.378422 -7.8132229 2.8453438 27 13 -0.017122947
10.865518 -6.8609347 -0.67345917 10 6 -0.017120643
12.359988 -7.8076229 3.3751657 39 14 -0.017118338
12.465399 -7.8772531 -0.25738809 24 7 -0.017116034
12.343246 -7.8030758 3.9128265 38 15 -0.01711373
3.094913 -1.9625765 -0.98195946 15 0 -0.017092995
12.409101 -7.8689809 0.25648057 27 8 -0.017090691
3.5313678 -2.2402096 -0.96548992 15 1 -0.017088387
12.396298 -7.8669286 0.76944327 23 9 -0.017086083
4.0640602 -2.580126 -0.93572736 9 2 -0.017083779
12.348197 -7.8424516 1.2797949 27 10 -0.017081475
4.808526 -3.0551164 -0.90231407 17 3 -0.017079171
12.353548 -7.8488765 1.7970854 34 11 -0.017076867
5.9004979 -3.7503502 -0.85844773 9 4 -0.017074563
12.320365 -7.8338308 2.3124144 24 12 -0.017072259
7.5801306 -4.8216395 -0.78597051 13 5 -0.017069954
12.281792 -7.8153257 2.8296976 27 13 -0.01706765
10.836928 -6.8985667 -0.67324978 10 6 -0.017065346
12.275403 -7.8172812 3.359869 45 14 -0.017063042
12.373732 -7.8798995 -0.2560617 24 7 -0.017060738
12.255649 -7.8077097 3.8936739 36 15 -0.017058434
3.0945549 -1.9775287 -0.98403007 15 0 -0.017037699
12.319523 -7.8756347 0.25522399 26 8 -0.017035395
3.5165665 -2.2489378 -0.96369034 15 1 -0.017033091
12.303449 -7.8714104 0.76546574 23 9 -0.017030787
4.0616441 -2.5985286 -0.93725383 9 2 -0.017028483
12.270403 -7.8532858 1.2745656 26 10 -0.017026179
4.7878509 -3.0654919 -0.90043688 17 3 -0.017023874
12.267863 -7.8576989 1.7887983 34 11 -0.01702157
5.8800273 -3.7676678 -0.85747278 9 4 -0.017019266
12.241678 -7.8469548 2.3030286 24 12 -0.017016962
7.5716405 -4.8534455 -0.78684205 13 5 -0.017014658
12.191635 -7.8178782 2.815196 27 13 -0.017012354
10.806057 -6.9320402 -0.67283112 10 6 -0.01701005
12.195558 -7.8264031 3.3454721 43 14 -0.017007746
12.30438 -7.899272 -0.25522399 23 7 -0.017005442
12.176558 -7.8202128 3.8776269 38 15 -0.017003138
3.0973787 -1.9945942 -0.98713589 13 0 -0.016982403
12.238162 -7.8839345 0.25410703 21 8 -0.016980099
3.5021424 -2.2569766 -0.9618907 15 1 -0.016977794
12.217145 -7.876431 0.76180226 23 9 -0.01697549
4.0591483 -2.6169455 -0.93878025 9 2 -0.016973186
12.197707 -7.8669128 1.2698592 26 10 -0.016970882
4.7738013 -3.0800438 -0.89981115 17 3 -0.016968578
12.181986 -7.8627963 1.7802675 33 11 -0.016966274
5.8701749 -3.7903242 -0.85796028 11 4 -0.01696397
12.161116 -7.8553395 2.2930167 24 12 -0.016961666
7.5747356 -4.892818 -0.78893375 13 5 -0.016959362
12.106559 -7.8230948 2.8018396 27 13 -0.016957058
10.768374 -6.9610438 -0.67199373 10 6 -0.016954755
12.104345 -7.8276563 3.3279259 40 14 -0.016952451
12.22972 -7.9117599 -0.25424665 27 7 -0.016950147
12.100533 -7.8311815 3.862098 40 15 -0.016947843
3.0936382 -2.0074971 -0.9881711 17 0 -0.016927106
12.166959 -7.8982959 0.25319952 26 8 -0.016924802
3.4975114 -2.2713106 -0.96279049 16 1 -0.016922498
12.130959 -7.8809462 0.75813878 23 9 -0.016920194
4.0450506 -2.6278901 -0.93763542 9 2 -0.01691789
12.113373 -7.872529 1.2639326 26 10 -0.016915586
4.7795825 -3.1074562 -0.90293986 17 3 -0.016913282
12.102878 -7.8717194 1.7727116 33 11 -0.016910978
5.8569088 -3.8107917 -0.85796028 9 4 -0.016908675
12.074019 -7.8589478 2.2817533 23 12 -0.016906371
7.5559406 -4.9181418 -0.78875941 14 5 -0.016904067
12.038046 -7.8385248 2.792299 27 13 -0.016901763
10.7574 -7.0073109 -0.67283112 10 6 -0.016899459
12.016539 -7.8304944 3.3112795 43 14 -0.016897155
12.126645 -7.9052601 -0.25267595 23 7 -0.016894851
12.034286 -7.8480468 3.8496747 40 15 -0.016892547
3.0769107 -2.0119405 -0.98506534 17 0 -0.01687181
12.090785 -7.9089742 0.25218728 26 8 -0.016869506
3.4944537 -2.2867062 -0.96414024 17 1 -0.016867202
12.038203 -7.8805799 0.75405657 23 9 -0.016864898
4.0259972 -2.6355422 -0.93534577 9 2 -0.016862594
12.019147 -7.8711028 1.2569602 26 10 -0.016860291
4.7687063 -3.1241212 -0.90293986 17 3 -0.016857987
12.022198 -7.8790975 1.7649119 33 11 -0.016855683
5.8468909 -3.8333895 -0.85844773 9 4 -0.016853379
11.982093 -7.8587947 2.2695515 27 12 -0.016851075
7.5270653 -4.9368382 -0.78753924 13 5 -0.016848771
11.961367 -7.8481874 2.7808504 27 13 -0.016846467
10.739552 -7.0492015 -0.67324978 10 6 -0.016844163
11.937006 -7.8381653 3.2968826 43 14 -0.016841859
12.035465 -7.9058223 -0.25134957 23 7 -0.016839555
11.927711 -7.8380213 3.8243105 42 15 -0.01683725
3.0634162 -2.0184169 -0.98299474 17 0 -0.016816514
11.994649 -7.9060097 0.25075617 26 8 -0.016814211
3.4962118 -2.3053267 -0.96683967 17 1 -0.016811907
11.966984 -7.8907714 0.75123042 23 9 -0.016809603
4.0200505 -2.6517417 -0.93610895 11 2 -0.016807299
11.943373 -7.8811865 1.2519051 26 10 -0.016804995
4.7511773 -3.1363945 -0.9016884 17 3 -0.016802691
11.948239 -7.8903856 1.7580873 33 11 -0.016800387
5.8400993 -3.8581526 -0.85942268 9 4 -0.016798083
11.90817 -7.86691 2.2604783 23 12 -0.016795779
7.5197597 -4.9696741 -0.78858513 11 5 -0.016793475
11.871668 -7.8487482 2.7663491 30 13 -0.01679117
10.728209 -7.0954618 -0.67408723 10 6 -0.016788866
11.865691 -7.8507514 3.2847352 40 14 -0.016786562
11.969158 -7.9192085 -0.25051185 23 7 -0.016784258
11.845269 -7.8402128 3.8061929 38 15 -0.016781954
3.0692277 -2.0376458 -0.98713589 16 0 -0.016761219
11.905058 -7.9037118 0.24942979 26 8 -0.016758915
3.4788077 -2.3104391 -0.96414024 17 1 -0.016756611
11.902769 -7.9081802 0.74892759 23 9 -0.016754307
4.0205798 -2.6722784 -0.93839866 11 2 -0.016752003
11.85772 -7.8842173 1.2458042 26 10 -0.016749699
4.7325258 -3.1466639 -0.90012401 17 3 -0.016747395
11.862506 -7.8903861 1.7493128 33 11 -0.01674509
5.8272729 -3.8774979 -0.85942268 9 4 -0.016742786
11.831305 -7.8755913 2.2510922 23 12 -0.016740482
7.5222673 -5.0091448 -0.79067689 13 5 -0.016738178
11.78021 -7.8445468 2.7510841 27 13 -0.016735874
10.694646 -7.1243548 -0.67345917 10 6 -0.01673357
11.789321 -7.8565555 3.2707884 43 14 -0.016731266
11.891524 -7.9276638 -0.24946471 27 7 -0.016728962
11.764791 -7.8461409 3.7891109 35 15 -0.016726658
3.0624537 -2.0478127 -0.98713589 16 0 -0.016705923
11.830857 -7.9140892 0.24845247 26 8 -0.016703619
3.4658628 -2.3193173 -0.96279049 15 1 -0.016701315
11.810364 -7.9063492 0.74484539 23 9 -0.016699011
4.0084333 -2.6834123 -0.93763542 11 2 -0.016696706
11.77688 -7.8869104 1.2400519 26 10 -0.016694402
4.7247953 -3.1653636 -0.9007498 17 3 -0.016692098
11.77058 -7.8886447 1.7398069 32 11 -0.016689794
5.8038101 -3.8911827 -0.85796028 9 4 -0.01668749
11.749604 -7.8805308 2.2407675 27 12 -0.016685186
7.4956861 -5.0274024 -0.78963101 14 5 -0.016682882
11.710368 -7.8571796 2.7411623 27 13 -0.016680578
10.659762 -7.1549644 -0.67283112 10 6 -0.016678274
11.700346 -7.8563795 3.2536922 41 14 -0.016675971
11.804023 -7.9289832 -0.24820814 27 7 -0.016673667
11.695642 -7.8591452 3.7756522 39 15 -0.016671363
3.0552869 -2.05849 -0.98713589 19 0 -0.016650626
11.755071 -7.9229269 0.24744022 25 8 -0.016648322
3.457746 -2.3314011 -0.96279049 16 1 -0.016646018
11.729708 -7.9117875 0.74149591 22 9 -0.016643714
3.999042 -2.6973877 -0.93763542 11 2 -0.01664141
11.714596 -7.9045691 1.2363913 26 10 -0.016639106
4.7169919 -3.1840475 -0.90137547 17 3 -0.016636802
11.703488 -7.9030223 1.7339572 37 11 -0.016634498
5.7901917 -3.911418 -0.85796028 9 4 -0.016632194
11.66474 -7.8827853 2.2298172 27 12 -0.01662989
7.4946003 -5.064693 -0.79137415 14 5 -0.016627587
11.638956 -7.8683205 2.7308583 30 13 -0.016625283
10.63803 -7.1943674 -0.67304045 10 6 -0.016622979
11.61636 -7.858954 3.2379456 38 14 -0.016620675
11.719967 -7.9320312 -0.24702136 26 7 -0.016618371
11.616948 -7.8652644 3.759088 37 15 -0.016616067
3.0384927 -2.0626326 -0.98403007 20 0 -0.01659533
11.679369 -7.9313326 0.24642798 25 8 -0.016593026
3.4608705 -2.3511219 -0.96593982 17 1 -0.016590722
11.665676 -7.9279857 0.73919314 22 9 -0.016588418
3.9863544 -2.7091236 -0.93687224 11 2 -0.016586114
11.627615 -7.905086 1.2301161 26 10 -0.01658381
4.714016 -3.206048 -0.90293986 17 3 -0.016581507
11.629876 -7.91256 1.7271326 32 11 -0.016579203
5.7765036 -3.9316056 -0.85796028 9 4 -0.016576899
11.581636 -7.8856559 2.2191796 27 12 -0.016574595
7.4702878 -5.086338 -0.79067689 14 5 -0.016572291
11.569232 -7.8801641 2.7209363 30 13 -0.016569987
10.629359 -7.2427044 -0.67408723 10 6 -0.016567683
11.54699 -7.8709168 3.226248 41 14 -0.016565379
11.645947 -7.941349 -0.24604402 26 7 -0.016563075
11.527182 -7.8633099 3.7389002 37 15 -0.016560771
3.0280848 -2.0710449 -0.98299474 20 0 -0.016540034
11.602101 -7.9381776 0.24538083 25 8 -0.01653773
3.4526422 -2.3631883 -0.96593982 17 1 -0.016535427
11.585197 -7.9325495 0.7358436 28 9 -0.016533123
3.9752541 -2.7219131 -0.93649065 11 2 -0.016530819
11.537489 -7.902842 1.2234924 21 10 -0.016528515
4.6962781 -3.2180166 -0.9016884 17 3 -0.016526211
11.54979 -7.917192 1.7193328 32 11 -0.016523907
5.7627444 -3.9517453 -0.85796028 9 4 -0.016521603
11.5068 -7.8936296 2.2101064 27 12 -0.016519299
7.4475579 -5.1090021 -0.79015392 14 5 -0.016516995
11.472048 -7.8727331 2.7045269 27 13 -0.016514691
10.607306 -7.2820234 -0.67429656 10 6 -0.016512387
11.474465 -7.8802857 3.2136507 44 14 -0.016510082
11.565413 -7.9457159 -0.24492706 22 7 -0.016507778
11.4519 -7.8706732 3.723371 41 15 -0.016505474
3.0272002 -2.0859871 -0.98506534 20 0 -0.016484739
11.515051 -7.9377689 0.24412426 25 8 -0.016482435
3.4395595 -2.3719072 -0.96459007 16 1 -0.016480131
11.506473 -7.9377837 0.73259878 22 9 -0.016477827
3.9689603 -2.7380023 -0.93725383 11 2 -0.016475523
11.467197 -7.9136434 1.2189603 26 10 -0.016473219
4.6801395 -3.2310236 -0.9007498 17 3 -0.016470915
11.473081 -7.9236178 1.7120206 32 11 -0.016468611
5.7587137 -3.9786072 -0.85942268 9 4 -0.016466307
11.446676 -7.9112835 2.2038488 27 12 -0.016464002
7.4362359 -5.1394982 -0.79085118 13 5 -0.016461698
11.396051 -7.8792353 2.6930783 27 13 -0.016459394
10.578536 -7.3167343 -0.67408723 10 6 -0.01645709
11.40362 -7.8903527 3.2015033 41 14 -0.016454786
11.498146 -7.958725 -0.24408937 26 7 -0.016452482
11.383061 -7.8820062 3.7099123 39 15 -0.016450178
3.0278349 -2.1020498 -0.98765355 20 0 -0.016429443
11.434714 -7.9414148 0.24300732 25 8 -0.016427139
3.4312587 -2.3838992 -0.96459007 16 1 -0.016424835
11.419652 -7.9368644 0.72883058 22 9 -0.016422531
3.965827 -2.7563212 -0.93878025 11 2 -0.016420227
11.398608 -7.925189 1.2146025 26 10 -0.016417922
4.6753187 -3.2518523 -0.90200126 14 3 -0.016415618
11.383434 -7.9205341 1.7027587 36 11 -0.016413314
5.7284985 -3.987344 -0.85698533 9 4 -0.01641101
11.362253 -7.911685 2.1928985 27 12 -0.016408706
7.4264259 -5.1711173 -0.79172277 14 5 -0.016406402
11.31854 -7.8841815 2.6812482 30 13 -0.016404098
10.554571 -7.3547568 -0.67419189 7 6 -0.016401794
11.323253 -7.8933353 3.1866565 39 14 -0.01639949
11.421086 -7.9644971 -0.24304222 30 7 -0.016397186
11.300025 -7.8830066 3.6917951 35 15 -0.016394883
3.0204792 -2.112606 -0.98765355 20 0 -0.016374147
11.365961 -7.9526205 0.24213469 25 8 -0.016371842
3.4229169 -2.3958616 -0.96459007 15 1 -0.016369538
11.337638 -7.9357495 0.72527176 22 9 -0.016367234
3.9481409 -2.764518 -0.93687224 11 2 -0.01636493
11.323549 -7.9317799 1.2095473 26 10 -0.016362626
4.6574688 -3.2636185 -0.9007498 17 3 -0.016360322
11.306952 -7.9260383 1.6954465 31 11 -0.016358018
5.7119937 -4.0040393 -0.85649782 9 4 -0.016355714
11.285815 -7.9141612 2.1831996 26 12 -0.01635341
7.4213781 -5.2061625 -0.79311723 14 5 -0.016351106
11.249167 -7.8943191 2.6713262 30 13 -0.016348803
10.540276 -7.3995881 -0.67492455 10 6 -0.016346499
11.239597 -7.8905325 3.1704602 44 14 -0.016344195
11.329154 -7.956356 -0.24164602 30 7 -0.016341891
11.240627 -7.8971148 3.6809247 41 15 -0.016339587
3.0055599 -2.1170483 -0.98506534 17 0 -0.01631885
11.3052 -7.9660797 0.24140169 25 8 -0.016316546
3.4181387 -2.409445 -0.96548992 16 1 -0.016314242
11.267183 -7.9422345 0.72244561 22 9 -0.016311938
3.9357424 -2.7753322 -0.93610895 11 2 -0.016309634
11.241829 -7.9302387 1.2036208 26 10 -0.01630733
4.6579189 -3.2870173 -0.90293986 17 3 -0.016305026
11.251414 -7.9428825 1.6910591 36 11 -0.016302723
5.7019277 -4.025249 -0.85698533 9 4 -0.016300419
11.198195 -7.9082417 2.1713107 26 12 -0.016298115
7.3861732 -5.2180982 -0.7911998 13 5 -0.016295811
11.182844 -7.9032526 2.6617856 27 13 -0.016293507
10.528727 -7.4437237 -0.67576194 10 6 -0.016291203
11.165632 -7.8940105 3.1569631 39 14 -0.016288899
11.256994 -7.9615512 -0.24066868 30 7 -0.016286595
11.157603 -7.8941774 3.6622896 42 15 -0.016284291
2.9922199 -2.1225324 -0.98299474 17 0 -0.016263554
11.213489 -7.9572358 0.24000549 24 8 -0.01626125
3.414897 -2.4241507 -0.96683967 17 1 -0.016258946
11.210079 -7.960701 0.7205615 22 9 -0.016256642
3.9265175 -2.7883685 -0.93610895 11 2 -0.016254339
11.169991 -7.9351659 1.19874 30 10 -0.016252035
4.6373315 -3.2955794 -0.90106261 17 3 -0.016249731
11.171622 -7.942193 1.6830157 31 11 -0.016247427
5.694313 -4.0497298 -0.85796028 11 4 -0.016245123
11.13833 -7.9243803 2.1650534 26 12 -0.016242819
7.3834395 -5.2529583 -0.79276866 13 5 -0.016240515
11.10379 -7.9027257 2.6491923 30 13 -0.016238211
10.497476 -7.4739637 -0.67534322 10 6 -0.016235907
11.104676 -7.9091973 3.1475151 39 14 -0.016233603
11.186791 -7.9706264 -0.23976116 29 7 -0.016231298
11.084359 -7.9005594 3.6472783 43 15 -0.016228994
2.9895084 -2.1363342 -0.98454767 20 0 -0.016208259
11.138469 -7.9626031 0.23899324 24 8 -0.016205955
3.4032438 -2.433789 -0.96593982 17 1 -0.016203651
11.133492 -7.9649196 0.71742135 27 9 -0.016201347
3.9263406 -2.8089111 -0.93839866 11 2 -0.016199043
11.093617 -7.939322 1.1935107 30 10 -0.016196739
4.6209807 -3.3082972 -0.90012401 17 3 -0.016194435
11.087344 -7.9406867 1.674485 31 11 -0.016192131
5.6865969 -4.0742064 -0.85893518 14 4 -0.016189827
11.068856 -7.9332914 2.1569188 26 12 -0.016187523
7.3731561 -5.2845025 -0.7936402 13 5 -0.016185218
11.023485 -7.9036865 2.6365988 30 13 -0.016182914
10.464831 -7.5059047 -0.67492455 10 6 -0.01618061
11.034249 -7.9172378 3.1353679 42 14 -0.016178306
11.121537 -7.9828072 -0.23895834 29 7 -0.016176002
11.009635 -7.9053993 3.6317489 43 15 -0.016173698
2.989872 -2.1524 -0.98713589 20 0 -0.016152963
11.068416 -7.9710522 0.23808572 24 8 -0.016150659
3.3852406 -2.4388189 -0.96324039 17 1 -0.016148355
11.050529 -7.9640303 0.71386248 22 9 -0.016146051
3.9133265 -2.8203037 -0.93763542 11 2 -0.016143747
11.025434 -7.9488683 1.189153 26 10 -0.016141443
4.6126094 -3.3267186 -0.9007498 17 3 -0.016139138
11.014484 -7.9468193 1.6676602 31 11 -0.016136834
5.6642923 -4.0882225 -0.8577165 11 4 -0.01613453
10.997853 -7.9406581 2.1484711 26 12 -0.016132226
7.3514338 -5.3078742 -0.79329151 13 5 -0.016129922
10.95445 -7.91223 2.6266768 27 13 -0.016127618
10.451518 -7.5517464 -0.67576194 10 6 -0.016125314
10.946531 -7.9123259 3.1182716 42 14 -0.01612301
11.04499 -7.9864287 -0.23791121 29 7 -0.016120706
10.941277 -7.9143448 3.6182904 42 15 -0.016118402
2.9917238 -2.1696284 -0.99024171 22 0 -0.016097667
11.000059 -7.9802837 0.23721312 24 8 -0.016095363
3.3861701 -2.4574883 -0.96593982 17 1 -0.016093059
10.974177 -7.9673543 0.71072239 27 9 -0.016090754
3.9018693 -2.8327932 -0.93725383 11 2 -0.01608845
10.958929 -7.9592061 1.1849694 26 10 -0.016086146
4.605763 -3.3462825 -0.9016884 17 3 -0.016083842
10.946533 -7.9560404 1.6615667 35 11 -0.016081538
5.6515927 -4.1091371 -0.85796028 11 4 -0.016079234
10.918949 -7.9418187 2.1384594 26 12 -0.01607693
7.3393059 -5.338191 -0.79398882 13 5 -0.016074626
10.888663 -7.9226975 2.6175179 30 13 -0.016072322
10.425094 -7.5881829 -0.67576194 10 6 -0.016070019
10.874736 -7.9183698 3.1056743 39 14 -0.016067715
10.963706 -7.9860816 -0.23675935 29 7 -0.016065411
10.87299 -7.9229083 3.6048317 42 15 -0.016063107
2.971653 -2.1709411 -0.98610061 20 0 -0.01604237
10.926929 -7.9855938 0.23623577 23 8 -0.016040066
3.3822908 -2.472744 -0.96728951 22 1 -0.016037762
10.899546 -7.9714212 0.70768684 22 9 -0.016035458
3.887203 -2.8429196 -0.93610895 11 2 -0.016033154
10.879624 -7.9597659 1.1793915 30 10 -0.01603085
4.5956483 -3.3635058 -0.90200126 17 3 -0.016028546
10.86744 -7.9566765 1.6537671 30 11 -0.016026242
5.6340117 -4.1264939 -0.85747278 11 4 -0.016023938
10.835388 -7.9390216 2.1275089 26 12 -0.016021635
7.3222342 -5.3649549 -0.79416311 14 5 -0.016019331
10.818189 -7.9293203 2.6072142 30 13 -0.016017027
10.421091 -7.6410608 -0.67722732 10 6 -0.016014723
10.806173 -7.9263144 3.0939767 40 14 -0.016012419
10.889007 -7.989996 -0.2357471 29 7 -0.016010115
10.798548 -7.9265194 3.5893028 43 15 -0.016007811
2.9578333 -2.1767209 -0.98403007 17 0 -0.015987074
10.847456 -7.9857516 0.23511884 23 8 -0.01598477
3.3814843 -2.4903135 -0.96953911 23 1 -0.015982466
10.837886 -7.9845414 0.70548874 22 9 -0.015980162
3.8804169 -2.8588002 -0.93687224 11 2 -0.015977859
10.800449 -7.959868 1.1738135 26 10 -0.015975554
4.5806994 -3.3771825 -0.90137547 17 3 -0.015973251
10.801258 -7.9662848 1.6479174 30 11 -0.015970947
5.6195731 -4.1461353 -0.85747278 14 4 -0.015968643
10.775825 -7.9533348 2.1212516 26 12 -0.015966339
7.2890358 -5.3798337 -0.79259431 14 5 -0.015964035
10.735166 -7.9262209 2.5938578 30 13 -0.015961731
10.394356 -7.6773911 -0.67722732 10 6 -0.015959427
10.740824 -7.9361935 3.083179 42 14 -0.015957123
10.817633 -7.9958644 -0.23480467 29 7 -0.015954819
10.721107 -7.9274116 3.5727384 45 15 -0.015952514
2.9533207 -2.1893332 -0.98506534 20 0 -0.015932322
10.771328 -7.9878321 0.23407167 23 8 -0.015930017
3.35712 -2.4904912 -0.96504009 22 1 -0.015927713
10.765042 -7.9889965 0.70255798 27 9 -0.015925409
3.8782969 -2.8781772 -0.93878025 9 2 -0.015923105
10.732605 -7.9678297 1.1694556 26 10 -0.015920801
4.5593681 -3.3860853 -0.89949834 17 3 -0.015918497
10.725581 -7.9684253 1.6406052 35 11 -0.015916193
5.6114392 -4.1704621 -0.85844773 16 4 -0.015913889
10.711535 -7.9637938 2.1140556 26 12 -0.015911585
7.2862005 -5.4171319 -0.79433739 13 5 -0.015909281
10.663324 -7.9308391 2.5831723 30 13 -0.015906978
10.354674 -7.7040892 -0.67638999 10 6 -0.015904674
10.675538 -7.9457121 3.0723815 37 14 -0.01590237
10.754369 -8.0073032 -0.23403677 29 7 -0.015900066
10.656185 -7.9370914 3.5603149 42 15 -0.015897762
2.9518521 -2.2042525 -0.98713589 20 0 -0.015877025
10.706532 -7.9978576 0.23326886 23 8 -0.015874721
3.3406012 -2.496362 -0.96279049 19 1 -0.015872417
10.698697 -7.9978247 0.70004582 22 9 -0.015870113
3.8713715 -2.8940487 -0.93954355 11 2 -0.015867809
10.674411 -7.9825749 1.1661439 26 10 -0.015865505
4.5506835 -3.4043462 -0.90012401 17 3 -0.015863201
10.645254 -7.9665647 1.6325619 35 11 -0.015860898
5.5920796 -4.1864557 -0.8577165 14 4 -0.015858594
10.639399 -7.967979 2.1052952 26 12 -0.01585629
7.2656522 -5.4413381 -0.79416311 13 5 -0.015853986
10.597865 -7.9397621 2.5740135 30 13 -0.015851682
10.31813 -7.7329998 -0.67576194 10 6 -0.015849378
10.594725 -7.9431844 3.057085 37 14 -0.015847074
10.694358 -8.0207987 -0.23333868 32 7 -0.01584477
10.589782 -7.9452558 3.547374 39 15 -0.015842466
2.9503152 -2.219188 -0.98920643 19 0 -0.015821729
10.635406 -8.002718 0.23232643 23 8 -0.015819425
3.3427653 -2.516211 -0.96593982 17 1 -0.015817121
10.614672 -7.9900174 0.69627762 21 9 -0.015814818
3.8549724 -2.9028208 -0.93801707 9 2 -0.015812514
10.601923 -7.9862208 1.1612631 26 10 -0.01581021
4.5498161 -3.4285319 -0.90231407 19 3 -0.015807906
10.584092 -7.9785819 1.6274434 30 11 -0.015805602
5.574996 -4.2025867 -0.85722905 14 4 -0.015803298
10.56718 -7.9687257 2.0962222 26 12 -0.015800994
7.249795 -5.4690661 -0.79451174 13 5 -0.01579869
10.548146 -7.9601498 2.568671 30 13 -0.015796386
10.30542 -7.7797999 -0.67670399 10 6 -0.015794082
10.532553 -7.9512682 3.0467372 47 14 -0.015791778
10.619828 -8.0200634 -0.23229153 28 7 -0.015789473
10.538714 -7.9616961 3.5390918 45 15 -0.015787169
2.9336998 -2.221961 -0.98610061 19 0 -0.015766434
10.583309 -8.0186205 0.23176797 27 8 -0.01576413
3.3390622 -2.5308139 -0.96728951 16 1 -0.015761826
10.549915 -7.9962187 0.69376552 32 9 -0.015759522
3.8406322 -2.91203 -0.93687224 9 2 -0.015757218
10.535694 -7.9912329 1.1569053 34 10 -0.015754914
4.5399952 -3.4447951 -0.90262699 17 3 -0.01575261
10.527533 -7.9908328 1.6228124 34 11 -0.015750306
5.5594482 -4.219851 -0.85698533 11 4 -0.015748002
10.4935 -7.9678869 2.0868361 29 12 -0.015745698
7.2205138 -5.4846411 -0.79329151 11 5 -0.015743393
10.468544 -7.9546995 2.555696 30 13 -0.015741089
10.270024 -7.8066792 -0.67607594 15 6 -0.015738785
10.447174 -7.9413385 3.0296407 50 14 -0.015736481
10.531095 -8.0080309 -0.23093024 28 7 -0.015734177
10.444603 -7.945137 3.5163157 53 15 -0.015731873
2.920171 -2.2269917 -0.98403007 19 0 -0.015711138
10.507374 -8.0160723 0.2306859 37 8 -0.015708834
3.3306513 -2.5418725 -0.96728951 15 1 -0.01570653
10.483838 -8.0039091 0.69125336 43 9 -0.015704226
3.8356354 -2.9283242 -0.93801707 11 2 -0.015701922
10.4553 -7.9850101 1.1509787 34 10 -0.015699618
4.5254073 -3.4574327 -0.90200126 17 3 -0.015697313
10.464701 -7.9979744 1.6172063 42 11 -0.015695009
5.5541463 -4.2464647 -0.85844773 11 4 -0.015692705
10.432672 -7.9792657 2.0802658 28 12 -0.015690401
7.1997418 -5.5086017 -0.79311723 9 5 -0.015688097
10.410924 -7.9655118 2.5480635 30 13 -0.015685793
10.245667 -7.8419075 -0.67618066 18 6 -0.015683489
10.397729 -7.9611721 3.0233421 59 14 -0.015681185
10.493552 -8.037447 -0.2307208 31 7 -0.015678881
10.380003 -7.9533486 3.5038924 58 15 -0.015676577
2.92118 -2.2447422 -0.98713589 20 0 -0.015655842
10.482501 -8.0551386 0.23075573 32 8 -0.015653538
3.3186681 -2.5511076 -0.96638966 16 1 -0.015651233
10.481169 -8.0599356 0.69292814 32 9 -0.015648929
3.8326573 -2.9483478 -0.93992513 11 2 -0.015646625
10.440176 -8.0342131 1.1525476 34 10 -0.015644321
4.506444 -3.4691761 -0.9007498 17 3 -0.015642017
10.425708 -8.0259781 1.6155001 38 11 -0.015639713
5.5440073 -4.2694602 -0.8591789 14 4 -0.015637409
10.423534 -8.0300999 2.0840201 28 12 -0.015635105
7.1915164 -5.542213 -0.79433739 9 5 -0.015632801
10.394097 -8.0132055 2.5511165 30 13 -0.015630497
10.202621 -7.8684287 -0.67523855 18 6 -0.015628194
10.39471 -8.0194635 3.0309906 57 14 -0.01562589
10.506598 -8.1057844 -0.23162833 28 7 -0.015623585
10.364411 -7.9989753 3.5080335 50 15 -0.015621281
2.9179099 -2.2584724 -0.98868877 20 0 -0.015600545
10.490853 -8.1228867 0.23159343 32 8 -0.015598241
3.303133 -2.558481 -0.96459007 15 1 -0.015595937
10.478233 -8.1160402 0.69460285 32 9 -0.015593634
3.8223424 -2.9617085 -0.93992513 11 2 -0.01559133
10.448285 -8.0986805 1.1565567 29 10 -0.015589026
4.5005503 -3.4897273 -0.90200126 19 3 -0.015586722
10.432298 -8.0921192 1.6211061 34 11 -0.015584418
5.5133858 -4.2766199 -0.85674155 11 4 -0.015582114
10.434457 -8.0967112 2.0918419 29 12 -0.015579809
7.1752739 -5.569726 -0.79468602 9 5 -0.015577505
10.409481 -8.0831537 2.5618017 37 13 -0.015575201
10.175093 -7.9039946 -0.67523855 18 6 -0.015572897
10.39422 -8.074213 3.0386388 52 14 -0.015570594
10.503504 -8.1620426 -0.23218682 28 7 -0.01556829
10.391335 -8.0777893 3.5266683 52 15 -0.015565986
2.9119279 -2.2693238 -0.98920643 20 0 -0.01554525
10.501709 -8.1871376 0.23243116 32 8 -0.015542946
3.2977042 -2.5718174 -0.96548992 13 1 -0.015540642
10.473312 -8.1679392 0.69606829 32 9 -0.015538338
3.8032126 -2.9671216 -0.93763542 11 2 -0.015536034
10.457497 -8.1614771 1.1605659 29 10 -0.015533729
4.495182 -3.5094948 -0.90325272 17 3 -0.015531425
10.444519 -8.1572161 1.6271995 35 11 -0.015529121
5.4991736 -4.294879 -0.85674155 9 4 -0.015526817
10.430899 -8.1495113 2.096535 29 12 -0.015524514
7.1708937 -5.6045318 -0.79625487 10 5 -0.01552221
10.407364 -8.1369762 2.5679076 40 13 -0.015519906
10.151973 -7.9401536 -0.67544788 18 6 -0.015517602
10.401159 -8.1350498 3.0485368 52 14 -0.015515298
10.507877 -8.2214737 -0.23288491 29 7 -0.015512994
10.401001 -8.1407795 3.5390918 48 15 -0.015510689
2.8952677 -2.2718122 -0.98610061 22 0 -0.015489954
10.501243 -8.2429075 0.23302452 33 8 -0.015487649
3.301419 -2.5923667 -0.96908909 15 1 -0.015485345
10.488715 -8.2389936 0.69899911 33 9 -0.015483041
3.7882016 -2.9767406 -0.93649065 9 2 -0.015480737
10.463274 -8.2219629 1.1642264 30 10 -0.015478433
4.4866257 -3.5268238 -0.90387845 17 3 -0.01547613
10.457981 -8.2237101 1.6335368 35 11 -0.015473826
5.484148 -4.3140492 -0.85674155 9 4 -0.015471522
10.434987 -8.2115259 2.1031051 29 12 -0.015469218
7.1465893 -5.6258311 -0.7957319 11 5 -0.015466914
10.435967 -8.2181959 2.5820274 37 13 -0.015464609
10.114782 -7.9681277 -0.67481989 18 6 -0.015462305
10.401785 -8.1942196 3.057085 50 14 -0.015460001
10.513669 -8.2853327 -0.23365282 32 7 -0.015457697
10.396795 -8.1961718 3.547374 45 15 -0.015455393
2.8869216 -2.2824085 -0.98610061 22 0 -0.015434657
10.497623 -8.3024292 0.23361792 33 8 -0.015432353
3.2857823 -2.5996132 -0.96728951 15 1 -0.01543005
10.4976 -8.3083696 0.70161593 38 9 -0.015427746
3.7788048 -2.9918234 -0.93687224 11 2 -0.015425442
10.451813 -8.2750978 1.1663182 30 10 -0.015423138
4.4674749 -3.5383384 -0.90262699 17 3 -0.015420834
10.462 -8.2891064 1.6388991 39 11 -0.01541853
5.4807453 -4.3439846 -0.85869151 9 4 -0.015416225
10.440422 -8.2779436 2.1103013 29 12 -0.015413921
7.1181173 -5.6457968 -0.79486042 13 5 -0.015411617
10.416541 -8.2649336 2.5846987 33 13 -0.015409313
10.098024 -8.0150795 -0.67565727 18 6 -0.01540701
10.408314 -8.2613649 3.0678825 50 14 -0.015404706
10.520816 -8.3536549 -0.23449054 32 7 -0.015402402
10.393913 -8.2558508 3.5566914 53 15 -0.015400098
2.887603 -2.3001966 -0.98920643 22 0 -0.015379362
10.498401 -8.3657742 0.23431601 33 8 -0.015377058
3.2701368 -2.6067801 -0.96548992 15 1 -0.015374754
10.499769 -8.3698606 0.70370936 38 9 -0.01537245
3.7760129 -3.0111158 -0.93878025 11 2 -0.015370145
10.463467 -8.3468971 1.1710246 30 10 -0.015367841
4.4483004 -3.5497601 -0.90137547 17 3 -0.015365537
10.453268 -8.3447332 1.6423115 39 11 -0.015363233
5.4678888 -4.3665209 -0.8591789 9 4 -0.015360929
10.448509 -8.3439217 2.11781 29 12 -0.015358626
7.1123757 -5.6818008 -0.79642916 14 5 -0.015356322
10.42137 -8.328207 2.5930946 30 13 -0.015354018
10.065304 -8.0465384 -0.67534322 15 6 -0.015351714
10.422101 -8.3347549 3.0809298 52 14 -0.01534941
10.532197 -8.422801 -0.23539807 29 7 -0.015347105
10.398219 -8.3186331 3.5680795 54 15 -0.015344801
2.8840771 -2.3138888 -0.99075931 22 0 -0.015324065
10.514275 -8.4355803 0.23529334 33 8 -0.015321761
3.2614746 -2.61761 -0.96548992 16 1 -0.015319457
10.495408 -8.426466 0.70538408 38 9 -0.015317153
3.7700713 -3.0279663 -0.93992513 11 2 -0.015314849
10.47465 -8.4158154 1.1755567 30 10 -0.015312546
4.4395843 -3.5669658 -0.90200126 17 3 -0.015310242
10.451842 -8.4004936 1.6464549 35 11 -0.015307938
5.4471903 -4.3796535 -0.85820401 9 4 -0.015305634
10.451644 -8.4063406 2.1243804 29 12 -0.01530333
7.0987086 -5.7115893 -0.79712647 15 5 -0.015301025
10.419698 -8.3836422 2.599582 37 13 -0.015298721
10.015228 -8.0610867 -0.67377317 15 6 -0.015296417
10.414137 -8.3851576 3.0867784 52 14 -0.015294113
10.536993 -8.4871101 -0.23616597 29 7 -0.01529181
10.40823 -8.3863926 3.581538 52 15 -0.015289506
2.8793933 -2.3258679 -0.99179465 22 0 -0.015268769
10.520538 -8.5011377 0.23609616 33 8 -0.015266466
3.2568636 -2.6326537 -0.96683967 17 1 -0.015264162
10.500025 -8.4875917 0.70758218 33 9 -0.015261858
3.7539032 -3.0355139 -0.93839866 11 2 -0.015259554
10.480763 -8.4780712 1.1793915 30 10 -0.01525725
4.4409266 -3.5936253 -0.90481704 17 3 -0.015254945
10.462571 -8.4693995 1.6527921 35 11 -0.015252641
5.4287839 -4.3961425 -0.8577165 9 4 -0.015250337
10.451343 -8.4633303 2.1300118 29 12 -0.015248033
7.0812778 -5.736352 -0.79730076 15 5 -0.015245729
10.443755 -8.4632244 2.6129384 43 13 -0.015243426
9.9870281 -8.0959969 -0.67377317 17 6 -0.015241122
10.427183 -8.4558277 3.0993757 52 14 -0.015238818
10.530536 -8.5396404 -0.23665462 29 7 -0.015236514
10.41937 -8.4525051 3.5949967 49 15 -0.01523421
2.8607674 -2.3273704 -0.9881711 22 0 -0.015213474
10.531071 -8.5675268 0.23696879 34 8 -0.01521117
3.2526503 -2.6471298 -0.96818936 16 1 -0.015208866
10.50441 -8.5519333 0.709885 33 9 -0.015206561
3.7341506 -3.0411601 -0.93610895 11 2 -0.015204257
10.474275 -8.5334806 1.1820061 30 10 -0.015201953
4.4259219 -3.6058366 -0.90419132 17 3 -0.015199649
10.472898 -8.5354004 1.6588856 39 11 -0.015197346
5.4080224 -4.4091039 -0.85674155 9 4 -0.015195042
10.449291 -8.522234 2.1356435 29 12 -0.015192738
7.0596671 -5.7597761 -0.79712647 15 5 -0.015190434
10.447578 -8.5238743 2.6209526 37 13 -0.01518813
9.9601259 -8.1290703 -0.67377317 15 6 -0.015185826
10.427767 -8.5137749 3.1079237 52 14 -0.015183521
10.536285 -8.6054392 -0.23745745 32 7 -0.015181217
10.413738 -8.5083809 3.6032789 52 15 -0.015178913
2.8530335 -2.3368444 -0.9881711 20 0 -0.015158177
10.528941 -8.6270485 0.23759706 34 8 -0.015155873
3.2433901 -2.6584675 -0.96818936 16 1 -0.015153569
10.520827 -8.6265392 0.71302515 33 9 -0.015151266
3.730118 -3.0585058 -0.93763542 11 2 -0.015148962
10.479809 -8.5959663 1.1858411 30 10 -0.015146658
4.4071999 -3.6162519 -0.90293986 17 3 -0.015144354
10.476797 -8.5996151 1.664248 40 11 -0.01514205
5.4110088 -4.4430714 -0.85966641 9 4 -0.015139746
10.468327 -8.5987787 2.1456554 29 12 -0.015137441
7.0389886 -5.7818894 -0.79695207 15 5 -0.015135137
10.438996 -8.5777407 2.6262951 37 13 -0.015132833
9.9301462 -8.1625214 -0.6736685 15 6 -0.015130529
10.435616 -8.5810652 3.1191714 55 14 -0.015128225
10.547879 -8.676465 -0.23839988 29 7 -0.015125922
10.413809 -8.5692301 3.6136317 52 15 -0.015123618
2.8418787 -2.3443305 -0.98713589 17 0 -0.015102882
10.532695 -8.6917505 0.23836498 34 8 -0.015100578
3.2310848 -2.6672916 -0.96728951 16 1 -0.015098274
10.521451 -8.6886473 0.71511859 33 9 -0.01509597
3.7209327 -3.0727577 -0.93801707 11 2 -0.015093666
10.485069 -8.6616802 1.1898502 30 10 -0.015091361
4.3884592 -3.6265805 -0.9016884 17 3 -0.015089057
10.474254 -8.6588984 1.6686351 36 11 -0.015086753
5.3954663 -4.4619322 -0.85966641 9 4 -0.015084449
10.476297 -8.6667471 2.1534772 29 12 -0.015082145
7.0218334 -5.8089657 -0.79730076 14 5 -0.015079842
10.436215 -8.6366568 2.6331642 37 13 -0.015077538
9.8954401 -8.1920385 -0.67324978 15 6 -0.015075234
10.441619 -8.6472702 3.1299689 55 14 -0.01507293
10.551406 -8.7412968 -0.23916778 29 7 -0.015070626
10.416557 -8.6326475 3.6250196 54 15 -0.015068321
2.8396218 -2.3591745 -0.98920643 20 0 -0.015047586
10.5392 -8.7591381 0.23920268 34 8 -0.015045281
3.2187576 -2.6760619 -0.96638966 15 1 -0.015042977
10.520225 -8.7464724 0.71700269 33 9 -0.015040673
3.717731 -3.0920043 -0.93992513 11 2 -0.015038369
10.499187 -8.7351818 1.1949053 30 10 -0.015036065
4.3803282 -3.6456678 -0.90262699 17 3 -0.015033762
10.479053 -8.7246218 1.6742412 36 11 -0.015031458
5.3691812 -4.4718456 -0.85796028 11 4 -0.015029154
10.480893 -8.7292519 2.1603601 29 12 -0.01502685
6.9969211 -5.8296151 -0.79677778 14 5 -0.015024546
10.452757 -8.7119989 2.6449945 40 13 -0.015022242
9.8575792 -8.2188568 -0.67262173 15 6 -0.015019937
10.444295 -8.7111273 3.1398668 55 14 -0.015017633
10.556146 -8.8044167 -0.2399357 29 7 -0.015015329
10.438307 -8.7092228 3.6426194 50 15 -0.015013025
2.8313696 -2.369072 -0.98920643 20 0 -0.014992289
10.539235 -8.8184195 0.23986587 34 8 -0.014989985
3.2098658 -2.6867213 -0.96638966 15 1 -0.014987681
10.523318 -8.8113508 0.71930546 33 9 -0.014985378
3.7008953 -3.0999203 -0.93839866 11 2 -0.014983074
10.509865 -8.8063269 1.1996117 30 10 -0.01498077
4.371243 -3.6627107 -0.90325272 17 3 -0.014978466
10.483533 -8.7873774 1.6796035 36 11 -0.014976162
5.3528013 -4.4883504 -0.8577165 9 4 -0.014973857
10.476087 -8.787365 2.165679 29 12 -0.014971553
6.9872127 -5.8629675 -0.79799795 12 5 -0.014969249
10.464416 -8.7806864 2.655298 37 13 -0.014966945
9.8302708 -8.2515001 -0.67262173 15 6 -0.014964642
10.443705 -8.7695227 3.1484149 52 14 -0.014962338
10.559034 -8.8695078 -0.2407036 30 7 -0.014960034
10.440381 -8.7729483 3.6540074 52 15 -0.01495773
2.8205426 -2.3759589 -0.9881711 22 0 -0.014936994
10.552735 -8.8925247 0.24087812 35 8 -0.01493469
3.2064281 -2.7029335 -0.96818936 16 1 -0.014932386
10.532195 -8.881506 0.72202694 33 9 -0.014930082
3.6800895 -3.1033168 -0.93572736 11 2 -0.014927777
10.503448 -8.8604012 1.2022263 30 10 -0.014925473
4.3659797 -3.6843171 -0.90481704 14 3 -0.014923169
10.501335 -8.8648958 1.6874031 36 11 -0.014920865
5.3401346 -4.5095696 -0.85820401 9 4 -0.014918562
10.472513 -8.8468266 2.1713107 29 12 -0.014916258
6.9601231 -5.8796778 -0.79712647 12 5 -0.014913954
10.462193 -8.841238 2.6625488 33 13 -0.01491165
9.815136 -8.297369 -0.67356384 12 6 -0.014909346
10.448743 -8.8361254 3.1592126 49 14 -0.014907042
10.558542 -8.9321413 -0.24140169 30 7 -0.014904737
10.436237 -8.8318005 3.6633248 52 15 -0.014902433
2.8078127 -2.3820405 -0.98661828 22 0 -0.014881697
10.546024 -8.9500093 0.24143659 35 8 -0.014879393
3.2058866 -2.7216766 -0.97088867 15 1 -0.014877089
10.5468 -8.9570026 0.7251671 33 9 -0.014874785
3.6752203 -3.121227 -0.93725383 11 2 -0.014872482
10.49675 -8.9176502 1.2050152 30 10 -0.014870178
4.3440609 -3.6918592 -0.90293986 17 3 -0.014867874
10.503599 -8.9297848 1.6927652 36 11 -0.01486557
5.3334341 -4.5358982 -0.85966641 11 4 -0.014863266
10.486703 -8.9217281 2.1806967 29 12 -0.014860962
6.9365206 -5.9013548 -0.79677778 12 5 -0.014858657
10.46416 -8.9056969 2.6709445 30 13 -0.014856353
9.7861118 -8.3315811 -0.67356384 12 6 -0.014854049
10.456409 -8.9053965 3.1709101 52 14 -0.014851745
10.559264 -8.9961767 -0.24213469 30 7 -0.014849441
10.434752 -8.893239 3.6736777 52 15 -0.014847137
2.7994804 -2.3918273 -0.98661828 23 0 -0.014826402
10.548161 -9.0153503 0.24220449 35 8 -0.014824098
3.18748 -2.7252526 -0.96818936 16 1 -0.014821794
10.551897 -9.0249195 0.72767919 33 9 -0.01481949
3.6672864 -3.1365891 -0.93801707 11 2 -0.014817186
10.510974 -8.9930954 1.2102447 30 10 -0.014814882
4.3221426 -3.6992934 -0.90106261 14 3 -0.014812578
10.501015 -8.9909248 1.6973963 31 11 -0.014810273
5.3175683 -4.5544882 -0.85966641 11 4 -0.014807969
10.492998 -8.9904108 2.1885185 27 12 -0.014805665
6.917871 -5.9293323 -0.79712647 12 5 -0.014803361
10.468783 -8.9728327 2.6801033 30 13 -0.014801057
9.7433243 -8.3539886 -0.67262173 12 6 -0.014798754
10.472593 -8.98244 3.185307 49 14 -0.01479645
10.618856 -9.1111088 -0.24422897 22 7 -0.014794146
10.450555 -8.9698715 3.6902421 50 15 -0.014791842
2.7965522 -2.4071128 -0.98868877 24 0 -0.014771106
10.669703 -9.1838722 0.24572989 20 8 -0.014768802
3.1735172 -2.7325475 -0.96683967 17 1 -0.014766498
10.689817 -9.2076855 0.73940241 11 9 -0.014764193
3.65874 -3.1525724 -0.93878025 12 2 -0.014761889
10.646965 -9.1772499 1.2297676 13 10 -0.014759585
4.3175316 -3.7228498 -0.90293986 14 3 -0.014757281
10.580817 -9.1234522 1.715433 23 11 -0.014754977
5.2956252 -4.5678363 -0.85869151 11 4 -0.014752674
10.623074 -9.166357 2.2223082 16 12 -0.01475037
6.9016562 -5.9573493 -0.79764932 14 5 -0.014748066
10.60671 -9.1586981 2.7239895 20 13 -0.014745762
9.7035704 -8.3818102 -0.67199373 10 6 -0.014743458
10.477938 -9.0538902 3.1970043 49 14 -0.014741153
10.729217 -9.271019 -0.24751003 15 7 -0.014738849
10.45718 -9.0391426 3.7037005 56 15 -0.014736545
2.7939715 -2.4219213 -0.99075931 22 0 -0.014715809
10.703954 -9.2818718 0.24730061 15 8 -0.014713505
3.1693687 -2.7492688 -0.96863925 17 1 -0.014711201
10.701253 -9.2860737 0.74254262 16 9 -0.014708897
3.6388168 -3.1576045 -0.93649065 15 2 -0.014706594
10.681067 -9.2718267 1.2374372 13 10 -0.01470429
4.3119674 -3.7443736 -0.90450418 14 3 -0.014701986
10.646216 -9.2480927 1.7315198 18 11 -0.014699682
5.2728539 -4.582006 -0.8577165 11 4 -0.014697378
10.640096 -9.2492943 2.2329459 13 12 -0.014695073
6.8827815 -5.98522 -0.79799795 14 5 -0.014692769
10.623566 -9.2381802 2.7365828 23 13 -0.014690465
9.6742535 -8.4156303 -0.67199373 10 6 -0.014688161
10.475671 -9.1159954 3.2060025 55 14 -0.014685858
10.716281 -9.3286638 -0.2479987 15 7 -0.014683554
10.458944 -9.1078587 3.7161241 54 15 -0.01468125
2.7748904 -2.4232507 -0.98713589 22 0 -0.014660513
10.712158 -9.3546915 0.24824303 15 8 -0.01465821
3.162688 -2.7628791 -0.96953911 19 1 -0.014655906
10.692836 -9.3443995 0.74421734 17 9 -0.014653602
3.6331313 -3.1760886 -0.93801707 15 2 -0.014651298
10.68001 -9.3397665 1.2412721 13 10 -0.014648993
4.2982144 -3.7601528 -0.90450418 14 3 -0.014646689
10.652715 -9.3191805 1.737857 18 11 -0.014644385
5.2568274 -4.6003842 -0.8577165 14 4 -0.014642081
10.638956 -9.3137035 2.239516 16 12 -0.014639778
6.85885 -6.0065837 -0.79764932 12 5 -0.014637474
10.622123 -9.3055153 2.7449784 20 13 -0.01463517
9.6403399 -8.4483995 -0.6717844 12 6 -0.014632866
10.475892 -9.183876 3.2163501 55 14 -0.014630562
10.71974 -9.3976498 -0.24883641 15 7 -0.014628258
10.45759 -9.1710596 3.7269943 50 15 -0.014625954
2.7672637 -2.4319563 -0.98713589 22 0 -0.014579773
10.711113 -9.4165707 0.24894114 15 8 -0.014577469
3.1622887 -2.7810731 -0.97223842 17 1 -0.014575165
10.712774 -9.4246616 0.74777621 11 9 -0.014572861
3.6260831 -3.1900799 -0.93878025 15 2 -0.014570557
10.668562 -9.3890686 1.2433639 13 10 -0.014568252
4.2804499 -3.7684166 -0.90325272 14 3 -0.014565949
10.670914 -9.3977509 1.7459003 19 11 -0.014563645
5.2519698 -4.626977 -0.85942268 16 4 -0.014561341
10.65099 -9.3868074 2.2485893 13 12 -0.014559037
6.8369565 -6.0254669 -0.79730076 12 5 -0.014556733
10.62229 -9.3648062 2.7526107 20 13 -0.014554429
9.6092567 -8.4746809 -0.6714704 12 6 -0.014552125
10.493751 -9.2579975 3.230747 57 14 -0.014549821
10.733497 -9.4728432 -0.24988356 15 7 -0.014547517
10.463326 -9.2376528 3.7399354 54 15 -0.014545212
2.7587576 -2.4416013 -0.98713589 20 0 -0.014524477
10.714112 -9.4857149 0.24977884 15 8 -0.014522173
3.1423497 -2.7830505 -0.96908909 16 1 -0.014519869
10.721669 -9.4990845 0.75070703 17 9 -0.014517565
3.6178646 -3.2053223 -0.93954355 13 2 -0.014515261
10.674491 -9.4606104 1.247896 13 10 -0.014512957
4.2672696 -3.7833347 -0.90325272 17 3 -0.014510653
